# .PCD v0.7 - Point Cloud Data file format
VERSION 0.7
FIELDS x y z intensity roll pitch yaw time
SIZE 4 4 4 4 4 4 4 8
TYPE F F F F F F F F
COUNT 1 1 1 1 1 1 1 1
WIDTH 559
HEIGHT 1
VIEWPOINT 0 0 0 1 0 0 0
POINTS 559
DATA ascii
-62.76453 118.77544 -6.5281477 200 -0.046228342 0.012936793 1.1597966 1.730055e+09
-62.333408 119.34435 -6.6192846 201 -0.042713247 0.050649405 0.95315319 1.730055e+09
-62.169056 119.62897 -6.5790796 202 -0.053512644 0.0041019707 0.6806215 1.730055e+09
-61.273724 120.38998 -6.6340532 203 -0.072729178 0.015331196 0.49409151 1.730055e+09
-60.367218 120.97008 -6.6186981 204 -0.064519666 0.0012144684 0.63250989 1.730055e+09
-59.365135 121.73821 -6.5506263 205 -0.074459188 -0.0046253982 0.65962762 1.730055e+09
-58.48497 122.41557 -6.7189002 206 -0.072917677 -0.0013150575 0.66646057 1.730055e+09
-57.638382 123.08929 -6.6307278 207 -0.070472345 0.033053894 0.66021848 1.730055e+09
-56.703568 123.8537 -6.7007308 208 -0.071787454 -0.0047894847 0.66479862 1.730055e+09
-55.767662 124.62656 -6.7156639 209 -0.076233499 -0.0069104852 0.66271329 1.730055e+09
-54.70245 125.44998 -6.7556181 210 -0.072835132 0.0048502199 0.66899413 1.730055e+09
-53.748146 126.21629 -6.745553 211 -0.070319675 0.022533072 0.67398971 1.730055e+09
-52.960732 126.86462 -6.7853847 212 -0.064099304 0.0019582266 0.67865574 1.730055e+09
-52.19051 127.50027 -6.7146139 213 -0.054202083 0.021125812 0.68560052 1.730055e+09
-51.132633 128.3205 -6.7916636 214 -0.042713273 0.020064905 0.67340553 1.730055e+09
-50.300743 129.03111 -6.884407 215 -0.047655504 0.048349369 0.67430294 1.730055e+09
-49.315624 129.80957 -6.9386482 216 -0.055265207 0.0099114403 0.68388212 1.730055e+09
-48.456161 130.45738 -6.9605994 217 -0.054385036 0.0044989618 0.60490316 1.730055e+09
-47.504585 131.13258 -6.9613123 218 -0.051915094 0.0014018416 0.57271677 1.730055e+09
-46.5783 131.79422 -6.9532957 219 -0.04445022 0.0046874159 0.61668932 1.730055e+09
-45.686359 132.47121 -7.0669689 220 -0.038879499 -0.0053693647 0.64039433 1.730055e+09
-44.680901 133.16147 -7.0297742 221 -0.050945446 0.015114801 0.64135927 1.730055e+09
-43.790741 133.80873 -7.025558 222 -0.03496718 0.0064442544 0.65072078 1.730055e+09
-42.93829 134.48703 -7.1072936 223 -0.03580229 -0.0085831247 0.73323971 1.730055e+09
-42.043785 135.38264 -6.9585948 224 -0.033909075 -0.027279189 0.73180342 1.730055e+09
-41.083504 136.24666 -7.0128007 225 -0.028704237 0.047895543 0.72628951 1.730055e+09
-40.201981 137.08199 -7.132422 226 -0.056345474 0.068659782 0.7243036 1.730055e+09
-39.346989 137.83463 -7.1862984 227 -0.066788942 0.032718789 0.71466792 1.730055e+09
-38.507816 138.5186 -7.2104454 228 -0.061270967 -0.070338532 0.67226678 1.730055e+09
-37.479057 139.28244 -7.1643205 229 -0.045495611 -0.036325153 0.65099865 1.730055e+09
-36.537502 139.97362 -7.1613631 230 -0.033368666 -0.038648125 0.57309854 1.730055e+09
-35.510395 140.63872 -7.1715488 231 -0.060136396 -0.013395527 0.57614398 1.730055e+09
-34.62936 141.24913 -7.1396422 232 -0.058410514 -0.0091590052 0.64449853 1.730055e+09
-33.778389 141.88033 -7.1611505 233 -0.056944974 -0.010423339 0.63815308 1.730055e+09
-32.92614 142.52988 -7.1740303 234 -0.041031733 -0.041249007 0.6339069 1.730055e+09
-31.99099 143.20877 -7.093791 235 -0.065090664 0.021925466 0.63742477 1.730055e+09
-30.975006 143.87437 -7.1669145 236 -0.057433192 0.0020319929 0.86825722 1.730055e+09
-30.84823 144.68845 -7.1789083 237 -0.080448903 0.012549218 0.62965608 1.730055e+09
-30.275948 144.94681 -7.2377992 238 -0.079630397 -0.022544973 0.17132446 1.730055e+09
-29.863977 144.8333 -7.0664396 239 -0.094663337 -0.031432495 -0.22627065 1.730055e+09
-29.709505 144.78792 -7.0739865 240 -0.086834401 -0.053052343 -0.42721248 1.730055e+09
-29.601322 144.53123 -7.1303129 241 -0.067956679 -0.069901377 -0.73045719 1.730055e+09
-29.338234 144.27948 -7.0701427 242 -0.047721177 -0.084588744 -0.99522722 1.730055e+09
-28.820305 143.30692 -7.0451627 243 -0.056474838 -0.080117919 -0.85028863 1.730055e+09
-28.107662 142.35474 -6.9312444 244 -0.053557973 -0.084789187 -0.88829643 1.730055e+09
-27.369358 141.43065 -6.8559561 245 -0.047059886 -0.088225812 -0.98320824 1.730055e+09
-26.567202 140.36189 -6.835217 246 -0.0092381798 -0.086724572 -0.99643886 1.730055e+09
-25.973608 139.47385 -6.7749867 247 -0.012502505 -0.051069494 -1.0062792 1.730055e+09
-25.447796 138.57887 -6.6778097 248 -0.0038709566 -0.056964383 -1.0123878 1.730055e+09
-24.868622 137.65865 -6.6206274 249 -0.012097921 -0.057684068 -0.98989505 1.730055e+09
-24.260891 136.8147 -6.5557852 250 -0.026301937 -0.055131782 -0.89983046 1.730055e+09
-23.602079 136.04932 -6.4639072 251 -0.035151277 -0.086726792 -0.85578698 1.730055e+09
-22.946198 135.29291 -6.4233131 252 -0.022874482 -0.06667982 -0.86027455 1.730055e+09
-22.144373 134.34891 -6.3233137 253 -0.02173298 -0.097445846 -0.8639338 1.730055e+09
-21.450512 133.5699 -6.3666391 254 -0.02337886 -0.074187674 -0.86825413 1.730055e+09
-20.751087 132.71399 -6.2913895 255 -0.022365645 -0.073655985 -0.87768459 1.730055e+09
-20.051481 131.84616 -6.1712193 256 -0.019430494 -0.0760139 -0.88316417 1.730055e+09
-19.284552 131.01178 -6.165061 257 0.0050173663 0.020343585 -0.88913745 1.730055e+09
-18.65336 130.13588 -6.052525 258 -0.0082324836 -0.11450574 -0.95127368 1.730055e+09
-18.097399 129.26932 -5.8884468 259 -0.00012403772 -0.051617786 -0.96826571 1.730055e+09
-17.38987 128.33208 -5.8993435 260 0.0019752209 -0.087180123 -0.9740327 1.730055e+09
-16.633295 127.12276 -5.8138728 261 -0.0018194962 -0.061959218 -0.98747665 1.730055e+09
-15.997733 126.16096 -5.7555599 262 -0.0079910532 -0.06205254 -0.98526311 1.730055e+09
-15.317445 125.13348 -5.6562638 263 -0.011548262 -0.038024481 -0.99111396 1.730055e+09
-14.6162 124.05798 -5.5675397 264 -0.0017436689 -0.070366219 -0.99801582 1.730055e+09
-14.063636 123.20826 -5.4750357 265 -0.004657432 -0.076390043 -1.0027016 1.730055e+09
-13.500012 122.33224 -5.5067682 266 0.00090709375 -0.056564588 -1.0059557 1.730055e+09
-12.818759 121.25466 -5.4731216 267 -0.0030556389 -0.043043785 -1.0080388 1.730055e+09
-12.29528 120.39792 -5.3946815 268 0.011924487 -0.075724475 -1.0186211 1.730055e+09
-11.746775 119.50118 -5.3118849 269 -0.0055179168 -0.049881034 -1.0018312 1.730055e+09
-11.046546 118.41479 -5.264864 270 -0.008226308 -0.069748417 -1.0018775 1.730055e+09
-10.323465 117.34819 -5.2300677 271 -0.019225387 -0.10940125 -1.0059774 1.730055e+09
-9.7337341 116.15105 -5.1603947 272 -0.020103212 -0.070105679 -0.79863054 1.730055e+09
-8.8626709 115.6031 -5.0268049 273 -0.026939396 -0.041689705 -0.59973675 1.730055e+09
-7.9523335 115.12603 -5.0049453 274 -0.045431726 -0.065205596 -0.5053215 1.730055e+09
-7.0533242 114.64658 -4.9280238 275 -0.075086102 -0.041891776 -0.38331231 1.730055e+09
-6.3907762 114.46989 -4.9308739 276 -0.091208898 -0.07216125 -0.13159746 1.730055e+09
-5.7837248 114.42754 -4.9037838 277 -0.096917085 -0.052635405 0.093902588 1.730055e+09
-5.1656623 114.55429 -4.8815145 278 -0.1011649 -0.031493966 0.31992984 1.730055e+09
-4.6777406 114.84531 -4.7592077 279 -0.094262302 -0.032984972 0.55478805 1.730055e+09
-3.6508024 115.45898 -4.8077745 280 -0.072764345 0.0088028042 0.73022664 1.730055e+09
-2.7581441 116.30961 -4.8875513 281 -0.078388304 0.029746134 0.74067795 1.730055e+09
-1.8624046 117.06062 -4.912364 282 -0.076749288 0.01606016 0.67642599 1.730055e+09
-1.005613 117.72345 -4.8728218 283 -0.083701044 -0.033968989 0.68196976 1.730055e+09
-0.11283397 118.53118 -4.8971758 284 -0.083875574 -0.012831786 0.68462467 1.730055e+09
0.70482749 119.20782 -4.8187866 285 -0.086442068 -0.0023180495 0.62002558 1.730055e+09
1.711422 119.88488 -4.9036708 286 -0.078764208 -0.023010787 0.46892256 1.730055e+09
2.915839 120.39098 -4.8632846 287 -0.068947248 0.00671551 0.45416266 1.730055e+09
4.0346265 120.96032 -4.8991222 288 -0.066607572 -0.021431308 0.50602412 1.730055e+09
5.139955 121.65456 -4.7971988 289 -0.065923765 -0.0059581357 0.61076504 1.730055e+09
6.2142067 122.45451 -4.8079562 290 -0.063569956 -0.027949104 0.62272733 1.730055e+09
7.0755453 123.06099 -4.7738171 291 -0.069507904 -0.016995814 0.56089073 1.730055e+09
8.1078959 123.6917 -4.7401323 292 -0.068173826 -0.021883031 0.5078277 1.730055e+09
9.1421919 124.21893 -4.6674008 293 -0.060145371 -0.054876368 0.50490844 1.730055e+09
10.23037 124.87901 -4.7277131 294 -0.062706649 -0.039349675 0.49968666 1.730055e+09
11.366628 125.49044 -4.6173892 295 -0.056579929 -0.02917614 0.50637722 1.730055e+09
12.47841 126.10572 -4.5670519 296 -0.062891506 -0.042119883 0.50346452 1.730055e+09
13.378954 126.6329 -4.5618887 297 -0.073600315 -0.041107167 0.5052765 1.730055e+09
14.467272 127.2354 -4.5634027 298 -0.083583191 -0.023382233 0.47784686 1.730055e+09
15.513855 127.73438 -4.561832 299 -0.080966108 -0.042226687 0.26650324 1.730055e+09
16.635971 127.96135 -4.4634342 300 -0.070690662 -0.032435276 0.22528397 1.730055e+09
17.846447 128.28032 -4.416503 301 -0.074718423 -0.0283601 0.41103256 1.730055e+09
18.832327 128.84232 -4.4853024 302 -0.088050842 -0.033995196 0.56255609 1.730055e+09
19.794949 129.53926 -4.4291568 303 -0.074916139 -0.027030429 0.5710429 1.730055e+09
20.718184 130.12714 -4.502028 304 -0.068086363 -0.01969008 0.57265687 1.730055e+09
21.638903 130.75 -4.4328771 305 -0.064127184 -0.0081976252 0.57570791 1.730055e+09
22.537718 131.34314 -4.3877511 306 -0.085130677 0.01202057 0.58041102 1.730055e+09
23.456772 131.72014 -4.4294071 307 -0.08585301 -0.019957859 0.34064636 1.730055e+09
24.43108 132.07991 -4.4289298 308 -0.083960958 -0.034186047 0.25730488 1.730055e+09
25.556782 132.43588 -4.4201508 309 -0.081982233 -0.025648836 0.28560939 1.730055e+09
26.751411 132.80724 -4.4141088 310 -0.082880139 -0.025966996 0.33796275 1.730055e+09
27.748146 133.20979 -4.3659701 311 -0.081772007 -0.014352516 0.40972188 1.730055e+09
28.916456 133.74585 -4.370388 312 -0.077331804 -0.0058116936 0.39381939 1.730055e+09
29.856941 134.10732 -4.376617 313 -0.073355414 -0.02942528 0.13978077 1.730055e+09
30.990696 134.17192 -4.3175068 314 -0.073811345 -0.024905404 0.090119988 1.730055e+09
32.116093 134.35081 -4.2803469 315 -0.072792158 -0.020681657 -0.076103732 1.730055e+09
32.989262 134.24503 -4.3097153 316 -0.060690038 -0.04347517 -0.28123531 1.730055e+09
33.808132 133.95682 -4.2340074 317 -0.045207661 -0.063431829 -0.49962726 1.730055e+09
34.671631 133.22981 -4.2072649 318 -0.03125044 -0.073475257 -0.70155752 1.730055e+09
35.488132 132.54373 -4.1437225 319 -0.0025370684 -0.052162252 -0.77087921 1.730055e+09
36.21064 131.77185 -3.9049397 320 -0.012868108 -0.14683016 -0.8116557 1.730055e+09
37.148476 130.80519 -3.8376205 321 0.013013633 -0.03412224 -0.84091127 1.730055e+09
38.009556 129.82979 -3.7678349 322 0.01733364 -0.035254382 -0.84098369 1.730055e+09
38.677193 129.03511 -3.7462535 323 0.019696929 -0.033956163 -0.8774724 1.730055e+09
39.537247 127.99666 -3.6644073 324 0.012759011 -0.1011516 -0.89085335 1.730055e+09
40.199409 127.17246 -3.6229501 325 0.0056223092 -0.057279296 -0.89535874 1.730055e+09
40.845348 126.38772 -3.5182266 326 0.0065726317 -0.052126665 -0.9031921 1.730055e+09
41.503567 125.50784 -3.5478861 327 0.012057905 -0.045236878 -0.91552597 1.730055e+09
42.168629 124.67355 -3.483475 328 0.01325254 -0.050568964 -0.91809791 1.7300551e+09
42.806362 123.85437 -3.4606531 329 0.013353612 -0.047925849 -0.92331791 1.7300551e+09
43.442501 123.01546 -3.4106462 330 0.010914478 -0.045738533 -0.92739803 1.7300551e+09
44.063744 122.18967 -3.3172731 331 0.0099325832 -0.042963844 -0.93627673 1.7300551e+09
44.742062 121.30773 -3.3441031 332 0.010249604 -0.04578054 -0.9383691 1.7300551e+09
45.407745 120.43116 -3.2987976 333 0.010663229 -0.046274059 -0.94456011 1.7300551e+09
46.048717 119.54839 -3.2437046 334 0.010487243 -0.046562277 -0.95018882 1.7300551e+09
46.718723 118.61918 -3.1933632 335 0.0082256058 -0.044757292 -1.0054512 1.7300551e+09
47.220444 117.67572 -3.2282169 336 -0.044943277 -0.06265831 -1.0205554 1.7300551e+09
47.83971 116.80624 -3.1301608 337 -0.0295309 -0.066967912 -0.94349808 1.7300551e+09
48.551361 115.93365 -2.9574027 338 -0.026779365 -0.079645127 -0.83009279 1.7300551e+09
49.190426 115.15675 -2.8602538 339 0.00639401 -0.064419374 -0.87538624 1.7300551e+09
50.045734 114.15742 -2.8198049 340 0.0038104998 -0.063495934 -0.94573784 1.7300551e+09
50.624695 113.32025 -2.8233287 341 0.0030913947 -0.055831075 -0.95426309 1.7300551e+09
51.233261 112.4753 -2.7709801 342 0.0022406497 -0.064577468 -0.96100336 1.7300551e+09
51.842743 111.58993 -2.6982787 343 -0.0033439046 -0.051845152 -0.97047573 1.7300551e+09
52.523502 110.76157 -2.6146064 344 -0.0086234668 -0.05167963 -0.93719035 1.7300551e+09
53.171291 109.95482 -2.567456 345 -0.015720485 -0.054380484 -0.78034848 1.7300551e+09
53.930454 109.18742 -2.5204303 346 -0.013884921 -0.056239378 -0.77448136 1.7300551e+09
54.699978 108.40293 -2.4867797 347 -0.013935325 -0.058960713 -0.77290004 1.7300551e+09
55.467827 107.62825 -2.4174058 348 -0.0092337895 -0.061235741 -0.83965319 1.7300551e+09
56.328499 106.48997 -2.3039644 349 -0.001776394 -0.063066117 -0.96084219 1.7300551e+09
56.939247 105.52182 -2.221391 350 -0.011305231 -0.054856442 -0.96582109 1.7300551e+09
57.568108 104.67458 -2.2030575 351 0.011627036 -0.035650074 -0.97015053 1.7300551e+09
58.145252 103.81023 -2.2018163 352 0.015600882 -0.039032348 -0.97254145 1.7300551e+09
58.76302 102.98306 -2.0586169 353 0.034824003 -0.060089942 -0.94497925 1.7300551e+09
59.408028 102.05796 -2.1028767 354 0.02432579 -0.056156982 -0.8419885 1.7300551e+09
60.202133 101.27493 -2.0792468 355 0.01396143 -0.052037239 -0.78532022 1.7300551e+09
61.01202 100.53967 -2.0107112 356 0.024891842 -0.030485477 -0.78399432 1.7300551e+09
61.720963 99.826347 -1.961702 357 0.030678531 -0.079920568 -0.79037827 1.7300551e+09
62.559517 98.977959 -1.9133312 358 0.016418923 -0.071854904 -0.78810143 1.7300551e+09
63.322044 98.178123 -1.7913725 359 0.016046287 -0.061530892 -0.80103832 1.7300551e+09
64.020554 97.347321 -1.7377412 360 0.015498235 -0.085638426 -0.89261973 1.7300551e+09
64.776459 96.457443 -1.6760994 361 0.0084432345 -0.065768108 -0.94276738 1.7300551e+09
65.47081 95.468338 -1.6834 362 0.0018175095 -0.075393908 -0.94980329 1.7300551e+09
66.150925 94.541794 -1.5060474 363 0.0062690214 -0.071101859 -0.94898075 1.7300551e+09
66.89267 93.586609 -1.4331331 364 0.0095075769 -0.06054727 -0.95558679 1.7300551e+09
67.496109 92.67067 -1.4114857 365 -0.0058736736 -0.048174605 -0.96241897 1.7300551e+09
68.093834 91.82489 -1.2955227 366 -0.0025334349 -0.053551264 -0.96807671 1.7300551e+09
68.792572 90.833885 -1.3562996 367 -0.0050774692 -0.049332172 -0.97010303 1.7300551e+09
69.452843 89.835609 -1.2891183 368 -0.0049183555 -0.052829221 -0.97628647 1.7300551e+09
70.115387 88.841705 -1.2209245 369 -0.00042351647 -0.049393591 -0.98114455 1.7300551e+09
70.729881 87.970932 -1.2106909 370 -0.0020927934 -0.055165041 -0.97957653 1.7300551e+09
71.321854 87.068306 -1.1529748 371 0.0011094619 -0.053693242 -0.98954356 1.7300551e+09
72.033043 86.015541 -1.0759393 372 -0.00016466477 -0.051845506 -0.98852426 1.7300551e+09
72.688789 85.003235 -1.0048276 373 0.0045703514 -0.049154192 -0.98782688 1.7300551e+09
73.327774 84.020935 -0.96036929 374 0.0040146993 -0.052529547 -0.99797088 1.7300551e+09
74.012772 82.995644 -0.87184387 375 -0.0012940464 -0.055580512 -1.0037464 1.7300551e+09
74.676041 81.976479 -0.7966128 376 -0.026068697 -0.069051348 -1.0044582 1.7300551e+09
75.353485 80.96434 -0.75880516 377 -0.014149454 -0.050538741 -1.0043721 1.7300551e+09
76.01265 79.945953 -0.71698302 378 -0.028031556 -0.038533073 -1.0073465 1.7300551e+09
76.638931 78.875153 -0.6429708 379 -0.027574057 -0.038232535 -0.99995881 1.7300551e+09
77.246735 77.981995 -0.58880585 380 -0.029381501 -0.039185602 -1.0001515 1.7300551e+09
77.872932 76.897537 -0.58852178 381 -0.031391904 -0.036314651 -0.89975762 1.7300551e+09
78.62233 76.13739 -0.56403738 382 -0.031093443 -0.035591699 -0.8544814 1.7300551e+09
79.33773 75.377312 -0.51872152 383 -0.029785078 -0.042066708 -0.84852451 1.7300551e+09
80.004539 74.620857 -0.46974885 384 -0.028497262 -0.039600175 -0.88807172 1.7300551e+09
80.57431 73.764221 -0.44808891 385 -0.023104524 -0.042026524 -1.0446789 1.7300551e+09
81.110085 72.805824 -0.42733872 386 -0.018579638 -0.049555689 -1.1606841 1.7300551e+09
81.574974 71.908501 -0.37356558 387 -0.023960833 -0.0489421 -1.0406044 1.7300551e+09
82.179314 70.860725 -0.29871437 388 -0.037656739 -0.083512746 -1.0231322 1.7300551e+09
82.738518 69.886864 -0.18783709 389 -0.038678993 -0.082158051 -1.0204296 1.7300551e+09
83.323792 69.005768 -0.23352017 390 -0.0065108109 -0.07274244 -1.0322562 1.7300551e+09
83.833473 68.002686 -0.078679807 391 -0.0041930154 -0.069088817 -1.0415145 1.7300551e+09
84.377403 67.128654 -0.11937322 392 0.010491116 -0.040932551 -1.0482318 1.7300551e+09
84.886986 66.251183 -0.049578276 393 0.019025948 -0.0546293 -1.0467145 1.7300551e+09
85.589363 65.180275 0.016593371 394 0.013658399 -0.057901945 -1.0023021 1.7300551e+09
86.08213 64.315483 0.16036214 395 -0.0044059837 -0.081077538 -1.0075011 1.7300551e+09
86.658188 63.398693 0.30834177 396 -0.0037475969 -0.081046864 -1.0123982 1.7300551e+09
87.207077 62.506485 0.32432774 397 -0.0078244898 -0.079756975 -0.9969843 1.7300551e+09
87.802856 61.607422 0.42308542 398 -0.012127481 -0.08125516 -0.93975025 1.7300551e+09
88.460014 60.723568 0.52336323 399 -0.011633089 -0.083972603 -0.93831199 1.7300551e+09
89.052948 59.872585 0.60789907 400 -0.010752874 -0.086148515 -0.95338148 1.7300551e+09
89.704613 58.974648 0.70602232 401 -0.010892229 -0.086994417 -0.9580034 1.7300551e+09
90.378693 58.087517 0.78525543 402 -0.011724307 -0.089278013 -0.95818734 1.7300551e+09
91.060966 57.100727 0.82525969 403 -0.012865918 -0.093665354 -0.95353991 1.7300551e+09
91.750404 56.320839 0.83267587 404 -0.010491762 -0.060347762 -0.75522661 1.7300551e+09
92.62085 55.540154 0.9354865 405 -0.012140455 -0.062413801 -0.76976913 1.7300551e+09
93.416336 54.737652 1.0273632 406 0.0012907218 -0.064771652 -0.98873347 1.7300551e+09
93.888206 53.781567 1.0240349 407 0.0077465177 -0.074300155 -1.07724 1.7300551e+09
94.372475 52.905769 1.0660203 408 0.0082108444 -0.07586164 -1.0965401 1.7300551e+09
94.757942 51.948654 1.1618235 409 0.013577025 -0.078311346 -1.1583413 1.7300551e+09
95.237411 51.327415 1.267678 410 -0.0027039461 -0.078327395 -0.95244646 1.7300551e+09
95.649216 50.742126 1.3162798 411 -0.019513192 -0.077900358 -0.74265444 1.7300551e+09
96.459297 49.95121 1.4441922 412 -0.014468954 -0.07829047 -0.78892946 1.7300551e+09
97.155708 49.044773 1.5306054 413 -2.559231e-05 -0.084698997 -0.97987795 1.7300551e+09
97.764534 48.253345 1.6368538 414 -0.0050472631 -0.085503861 -0.92155492 1.7300551e+09
98.482338 47.369225 1.7076304 415 -0.0052910307 -0.088380344 -0.92752618 1.7300551e+09
99.068443 46.531174 1.7712649 416 -0.0063071605 -0.087822616 -0.92421627 1.7300551e+09
99.668701 45.723362 1.858454 417 -0.013366168 -0.071499512 -0.93632895 1.7300551e+09
100.38164 44.75185 2.0299339 418 -0.0039745867 -0.092759512 -0.93695706 1.7300551e+09
100.93106 43.903809 2.086076 419 -0.006617113 -0.079494476 -1.0019954 1.7300551e+09
101.32136 43.053886 2.1680973 420 0.023216091 -0.09035743 -1.226259 1.7300551e+09
101.5356 42.482491 2.1632571 421 0.041585464 -0.086756594 -1.4744855 1.7300551e+09
101.50349 41.604996 2.1583626 422 0.068841085 -0.043304663 -1.7270478 1.7300551e+09
101.43726 40.971756 2.2377751 423 -0.025325129 -0.064875595 -1.940421 1.7300551e+09
100.96753 40.317657 2.3008516 424 0.037920557 -0.048810422 -2.2010603 1.7300551e+09
100.37722 39.493748 2.3456843 425 0.061155282 -0.024415947 -2.4208837 1.7300551e+09
99.428085 38.712929 2.2950211 426 0.063574627 0.0015864621 -2.5094955 1.7300551e+09
98.589325 38.064484 2.3320701 427 0.079681344 -0.0020694712 -2.5161123 1.7300551e+09
97.586029 37.411118 2.3103127 428 0.070468448 -0.011545767 -2.5429921 1.7300551e+09
96.559441 36.672836 2.4200606 429 0.066693917 -0.055400651 -2.5780258 1.7300551e+09
95.530556 36.027557 2.3553889 430 0.071656778 -0.012784726 -2.6716592 1.7300551e+09
94.297577 35.48196 2.4340782 431 0.0684122 0.024802055 -2.8963897 1.7300551e+09
93.211571 35.376934 2.3906224 432 0.085618526 -0.037806224 -3.0285082 1.7300551e+09
92.150261 35.258278 2.400387 433 0.071989551 0.0012900882 -3.034214 1.7300552e+09
90.946442 35.032181 2.4425163 434 0.091379449 -0.01264636 -2.9312713 1.7300552e+09
89.849266 34.783768 2.4652231 435 0.089137785 -0.0097839301 -2.91277 1.7300552e+09
88.761383 34.614017 2.4521606 436 0.098492719 -0.0012862758 -2.9201653 1.7300552e+09
87.701561 34.313644 2.4666321 437 0.085277267 -0.010276965 -2.9304199 1.7300552e+09
86.649719 34.129593 2.4863315 438 0.055013351 -0.0062395148 -2.9360054 1.7300552e+09
85.594582 33.895733 2.4158585 439 0.068357229 0.0036475253 -2.9399254 1.7300552e+09
84.526474 33.681087 2.3896465 440 0.068202533 0.002185175 -2.9486496 1.7300552e+09
83.220268 33.380733 2.4038229 441 0.064745262 -0.0068067522 -2.954212 1.7300552e+09
82.011909 33.175438 2.3143709 442 0.067659363 -0.0043298821 -2.950809 1.7300552e+09
80.764397 32.954582 2.3709402 443 0.072818078 -0.0052349307 -2.9314334 1.7300552e+09
79.54528 32.677952 2.2926352 444 0.079935849 0.0026707964 -2.9414146 1.7300552e+09
78.22274 32.451996 2.2974544 445 0.071800701 -0.0077751414 -2.9440908 1.7300552e+09
77.075211 32.171925 2.3586745 446 0.10551081 -0.020071516 -2.9183409 1.7300552e+09
75.962852 31.899179 2.361022 447 0.10311582 0.022378433 -2.9062912 1.7300552e+09
74.8582 31.613771 2.2571068 448 0.097372159 -0.017922403 -2.9212515 1.7300552e+09
73.692108 31.369276 2.2485948 449 0.072416469 -0.00029034418 -2.927067 1.7300552e+09
72.507904 31.103855 2.3113978 450 0.05925348 -0.010476659 -2.9270592 1.7300552e+09
71.315132 30.858017 2.328548 451 0.058048058 0.005890971 -2.9316037 1.7300552e+09
70.167656 30.57336 2.2434418 452 0.053208049 0.034522798 -2.9344518 1.7300552e+09
68.985275 30.309507 2.1703753 453 0.041733444 0.011208881 -2.9350863 1.7300552e+09
67.907074 30.143198 2.1270444 454 0.039966114 0.013315593 -2.9730961 1.7300552e+09
66.796265 29.911972 2.1617353 455 0.045061756 0.012540478 -3.0013485 1.7300552e+09
65.584404 29.782381 2.1198676 456 0.055661436 0.011925678 -3.0126491 1.7300552e+09
64.561279 29.613979 2.0220001 457 0.046510812 0.0092945602 -2.9606173 1.7300552e+09
63.436291 29.431591 2.0363996 458 0.055541661 -0.0085929045 -2.7758794 1.7300552e+09
62.734566 29.047596 2.1804519 459 0.046991508 0.021724612 -2.5364659 1.7300552e+09
62.039257 28.477676 2.0152187 460 0.059325643 -0.11822415 -2.2520726 1.7300552e+09
61.71331 27.990625 2.1514864 461 0.030890448 -0.044540424 -2.0309029 1.7300552e+09
61.50098 27.524803 2.1710622 462 0.020629939 -0.052654017 -1.8265347 1.7300552e+09
61.390438 26.941235 2.177738 463 0.009519428 -0.071545765 -1.602156 1.7300552e+09
61.471222 26.400299 2.2550213 464 -0.0089728255 -0.066586822 -1.3606007 1.7300552e+09
61.591507 25.78838 2.3450482 465 -0.019075615 -0.066863336 -1.1291823 1.7300552e+09
62.16217 25.041349 2.3407695 466 -0.032411762 -0.033941969 -0.87478751 1.7300552e+09
62.901226 24.250271 2.346005 467 -0.037547708 -0.051765341 -0.75096744 1.7300552e+09
63.618675 23.509672 2.4212942 468 -0.040136386 -0.097080655 -0.86004525 1.7300552e+09
64.163841 22.75071 2.515229 469 -0.029031033 -0.10113343 -1.1162513 1.7300552e+09
64.683464 21.749138 2.6867607 470 -0.047307715 -0.10092612 -1.1099083 1.7300552e+09
65.280083 20.628897 2.7305245 471 -0.033379987 -0.073473774 -1.0844365 1.7300552e+09
65.957916 19.718019 2.7109649 472 -0.048960954 -0.059262566 -0.86359346 1.7300552e+09
66.72747 18.781948 2.8180089 473 -0.043125708 -0.042546764 -0.78394294 1.7300552e+09
67.542061 17.948502 2.8852477 474 -0.048296463 -0.10727116 -0.86488068 1.7300552e+09
68.380981 16.938023 2.9872646 475 -0.041393008 -0.091414675 -0.9011032 1.7300552e+09
69.145943 16.010921 3.077323 476 -0.03929159 -0.089078039 -0.91470808 1.7300552e+09
69.851387 14.958923 3.1066003 477 -0.034404993 -0.075010754 -0.95738959 1.7300552e+09
70.583076 13.981329 3.2478437 478 -0.045888878 -0.063651502 -0.95197719 1.7300552e+09
71.319191 12.933568 3.2837503 479 -0.043714866 -0.062618427 -0.94570386 1.7300552e+09
71.928619 12.135018 3.4240315 480 -0.045789599 -0.067342311 -0.94821763 1.7300552e+09
72.540047 11.315772 3.468488 481 -0.058856983 -0.044873219 -0.94858438 1.7300552e+09
73.2258 10.361985 3.5262096 482 -0.061354894 -0.052178275 -0.9443633 1.7300552e+09
73.916916 9.4189005 3.6399968 483 -0.034420125 -0.083222903 -0.94553494 1.7300552e+09
74.566399 8.5393629 3.6926434 484 -0.036775552 -0.087548368 -0.94214773 1.7300552e+09
75.232567 7.676681 3.7939801 485 -0.03487489 -0.046219759 -0.93944466 1.7300552e+09
75.929787 6.6800618 3.8767598 486 -0.030316899 -0.064985968 -0.94120848 1.7300552e+09
76.581429 5.8747745 3.9639485 487 -0.033610716 -0.065207221 -0.91575664 1.7300552e+09
77.27169 5.0432172 3.9343245 488 -0.040787041 -0.067663059 -0.82587737 1.7300552e+09
77.997177 4.2840314 4.0650787 489 -0.0400718 -0.067043073 -0.81771487 1.7300552e+09
78.784081 3.4176908 4.0993109 490 -0.03740688 -0.06165475 -0.81393284 1.7300552e+09
79.628616 2.468909 4.1913881 491 -0.021747358 -0.07921353 -1.045856 1.7300552e+09
80.067841 1.5143533 4.1839299 492 -0.0071601965 -0.083063796 -1.2179651 1.7300552e+09
80.192657 0.51989692 4.3797212 493 -0.013083702 -0.083931148 -1.1714811 1.7300552e+09
80.617355 -0.19245358 4.5556417 494 -0.015798682 -0.073865376 -0.92275965 1.7300552e+09
81.50695 -1.117209 4.4886999 495 -0.020322694 -0.061277833 -0.89740288 1.7300552e+09
82.144958 -1.9561999 4.5630093 496 -0.020336822 -0.064196587 -0.89692122 1.7300552e+09
82.79821 -2.7982416 4.6230679 497 -0.021998281 -0.080076396 -0.89751756 1.7300552e+09
83.457581 -3.6228805 4.7209201 498 -0.019425841 -0.074011832 -0.90103358 1.7300552e+09
84.190331 -4.5563712 4.6485162 499 -0.01317089 -0.078516334 -0.90325373 1.7300552e+09
84.943329 -5.4472532 4.7138944 500 -0.007622249 -0.063585751 -0.8855418 1.7300552e+09
85.640442 -6.3291292 4.7565026 501 -0.0029725141 -0.015754905 -0.84459096 1.7300552e+09
86.462532 -7.126483 4.9338026 502 -0.016903458 -0.066438653 -0.78616184 1.7300552e+09
87.355003 -7.9339466 5.0465956 503 -0.050295565 -0.06362661 -0.68506229 1.7300552e+09
88.188751 -8.6158781 5.0437317 504 -0.028275868 -0.083639197 -0.66563475 1.7300552e+09
89.074455 -9.2975101 5.1956534 505 -0.040970657 -0.060917459 -0.66420996 1.7300552e+09
90.014915 -9.941431 5.278584 506 -0.049166948 -0.067227006 -0.68228251 1.7300552e+09
90.941383 -10.550939 5.3298974 507 -0.029201491 -0.075297117 -0.87598377 1.7300552e+09
91.352921 -11.536923 5.3951144 508 0.00084145839 -0.087236606 -0.99961019 1.7300552e+09
91.919998 -12.452168 5.4913564 509 -0.0053470228 -0.057671871 -1.0110776 1.7300552e+09
92.453865 -13.303391 5.528317 510 -0.031065928 -0.094765224 -0.90107906 1.7300552e+09
93.30043 -14.259761 5.5870533 511 -0.045712572 -0.096350119 -0.88496983 1.7300552e+09
94.150963 -15.20619 5.7206926 512 -0.050060917 -0.059204847 -0.86674809 1.7300552e+09
94.861694 -15.996916 5.7930021 513 -0.040145263 -0.06332422 -0.8039822 1.7300552e+09
95.919334 -16.871183 5.91118 514 -0.072339267 -0.045822889 -0.64156246 1.7300552e+09
96.753685 -17.518841 5.9064002 515 -0.060042348 -0.058184687 -0.57584316 1.7300552e+09
97.812279 -18.275885 5.902874 516 -0.056393899 -0.069669366 -0.58637702 1.7300552e+09
98.713921 -18.75864 6.0579176 517 -0.027298227 -0.078372024 -0.51974136 1.7300552e+09
99.831917 -19.1696 6.1692834 518 -0.080313854 -0.039568078 -0.27903968 1.7300552e+09
100.33986 -19.275972 6.1480889 519 -0.073300697 -0.097635403 -0.072817147 1.7300552e+09
101.12286 -19.286831 6.2051778 520 -0.023553167 -0.083897449 0.20467007 1.7300552e+09
101.75101 -19.080114 6.2366209 521 -0.038209319 -0.038381472 0.46358308 1.7300552e+09
102.84773 -18.438641 6.2298994 522 -0.054736648 0.005351821 0.63183999 1.7300552e+09
103.71344 -17.676783 6.2366805 523 -0.053435363 0.018997256 0.71424031 1.7300552e+09
104.51764 -16.992685 6.2346129 524 -0.0506978 0.018187741 0.72818846 1.7300552e+09
105.28526 -16.246477 6.1779456 525 -0.072779752 0.0395303 0.76425213 1.7300552e+09
106.03312 -15.477789 6.1191316 526 -0.07747297 0.029947609 0.78377771 1.7300552e+09
106.78572 -14.706584 6.0349951 527 -0.078872681 0.032379154 0.78919083 1.7300552e+09
107.50423 -13.948395 6.0139556 528 -0.08610516 0.030162761 0.79730797 1.7300552e+09
108.36362 -13.102118 5.9474154 529 -0.090024307 0.025269095 0.75118345 1.7300552e+09
109.21181 -12.38418 5.9086628 530 -0.090165496 0.015930459 0.66924208 1.7300552e+09
110.14327 -11.698737 5.797822 531 -0.090439327 0.01562174 0.61191779 1.7300552e+09
110.98652 -11.075657 5.8939734 532 -0.090053372 0.018493323 0.61108422 1.7300552e+09
112.02374 -10.249556 5.8933816 533 -0.092622466 0.0091548124 0.63429993 1.7300552e+09
112.83775 -9.6604815 5.7950506 534 -0.09549877 0.022628639 0.66386324 1.7300552e+09
113.6881 -8.9807673 5.8121419 535 -0.099418551 0.013679243 0.66901779 1.7300552e+09
114.6553 -8.1937237 5.8298411 536 -0.11490208 0.039727483 0.67009085 1.7300552e+09
115.64579 -7.3640041 5.8332276 537 -0.10124671 0.0090430565 0.68207324 1.7300552e+09
116.58662 -6.6153955 5.6863461 538 -0.098390162 0.018304916 0.68612725 1.7300552e+09
117.50614 -5.8453507 5.7184882 539 -0.09837693 0.016526833 0.68477988 1.7300552e+09
118.53248 -5.0600586 5.6384487 540 -0.09913104 0.028588712 0.68624961 1.7300552e+09
119.50003 -4.234046 5.5620484 541 -0.09778785 0.023320604 0.69151556 1.7300552e+09
120.40704 -3.3920734 5.595305 542 -0.098856986 0.025032833 0.69694549 1.7300552e+09
121.28934 -2.6421442 5.6249232 543 -0.11258733 0.045335226 0.70365936 1.7300552e+09
122.23292 -1.8418055 5.3935108 544 -0.12107324 0.033142518 0.71269131 1.7300552e+09
123.08226 -1.0704366 5.3057227 545 -0.12454505 0.052239027 0.72034687 1.7300552e+09
123.82501 -0.36892191 5.4301944 546 -0.12880789 0.044770543 0.71554744 1.7300552e+09
124.68649 0.37396234 5.2988434 547 -0.16983542 0.034153655 0.66248602 1.7300552e+09
125.6681 1.1291354 5.2173991 548 -0.1648082 0.04220359 0.65365219 1.7300552e+09
126.63121 1.8701326 5.1859756 549 -0.1385272 0.010275856 0.65686065 1.7300552e+09
127.53047 2.5429964 5.2204585 550 -0.10499428 0.013578139 0.57694954 1.7300552e+09
128.46353 3.1214678 5.1028643 551 -0.077916801 0.07710667 0.57197464 1.7300552e+09
129.46724 3.767931 5.0260234 552 -0.072592318 0.11208422 0.56480479 1.7300552e+09
130.18828 4.2762899 4.8660626 553 -0.017249057 -0.091867909 0.63193637 1.7300552e+09
131.10141 4.9699168 5.0041013 554 -0.056361631 -0.029393438 0.55384034 1.7300552e+09
131.62671 5.0987415 5.0445762 555 -0.053107888 -0.024427038 0.33801481 1.7300552e+09
131.95987 5.1424737 5.107265 556 -0.045581613 -0.034363303 0.067562178 1.7300552e+09
132.60934 5.0912519 5.0120502 557 -0.03750417 -0.068109237 -0.25288054 1.7300552e+09
132.99976 4.9299927 5.0343537 558 -0.014876407 -0.077308245 -0.54129219 1.7300552e+09
133.32373 4.6388893 5.1042237 559 0.0030499853 -0.078079425 -0.82136726 1.7300552e+09
133.35591 4.1775355 5.1659341 560 0.021787737 -0.065381318 -1.0786768 1.7300552e+09
134.0547 3.1777284 5.2693915 561 0.022071309 -0.072202511 -1.0856242 1.7300552e+09
134.54303 2.17747 5.2894235 562 0.017515559 -0.077571377 -1.0823586 1.7300552e+09
135.05089 1.3120779 5.3757854 563 0.016525809 -0.075828724 -1.0921295 1.7300552e+09
135.52429 0.36277756 5.4110856 564 0.0075149708 -0.067802653 -1.0848721 1.7300552e+09
136.09138 -0.51464576 5.5346828 565 -0.010540816 -0.073694199 -0.89414454 1.7300553e+09
136.84201 -1.3967316 5.536963 566 -0.010002558 -0.059958462 -0.86960822 1.7300553e+09
137.54689 -2.218029 5.7933908 567 -0.0018463038 -0.097634517 -0.880853 1.7300553e+09
138.20439 -3.0705662 5.7901444 568 -0.012076326 -0.069984436 -0.88742328 1.7300553e+09
138.88263 -3.8344533 5.8895903 569 -0.013924386 -0.079535112 -0.8957473 1.7300553e+09
139.56276 -4.6558485 5.8290157 570 -0.0076456419 -0.090875909 -0.90338409 1.7300553e+09
140.1916 -5.4682055 6.0340896 571 -0.0081601422 -0.083001658 -0.91718513 1.7300553e+09
140.84645 -6.3204942 6.0619745 572 -0.01153418 -0.084461428 -0.91574723 1.7300553e+09
141.61452 -7.2858191 6.0928383 573 -0.0059270621 -0.087213151 -0.93269914 1.7300553e+09
142.27533 -8.1693773 6.149107 574 -0.0013622507 -0.086170852 -0.93674195 1.7300553e+09
142.88988 -9.0549459 6.3010917 575 0.0031394123 -0.085877918 -0.93923211 1.7300553e+09
143.54752 -9.9334116 6.3599715 576 0.0024681215 -0.079563722 -0.94520324 1.7300553e+09
144.16151 -10.766971 6.4631338 577 -0.0004068916 -0.075095072 -0.94915915 1.7300553e+09
144.89813 -11.769779 6.5060019 578 -0.0046671452 -0.072621398 -0.95838809 1.7300553e+09
145.66319 -12.815744 6.5969377 579 -0.0031968867 -0.059810992 -0.96349007 1.7300553e+09
146.28102 -13.727837 6.7261691 580 -0.0020869046 -0.075368032 -0.96907991 1.7300553e+09
146.93196 -14.684962 6.7434268 581 -0.0036595599 -0.071051985 -0.97262698 1.7300553e+09
147.55695 -15.617294 6.7839932 582 -0.0018845447 -0.072163552 -0.9769057 1.7300553e+09
148.11571 -16.4352 7.0002956 583 -0.0090089077 -0.072379529 -0.98389846 1.7300553e+09
148.73193 -17.364357 6.8935089 584 -0.011780402 -0.07127542 -0.99023235 1.7300553e+09
149.32652 -18.237501 7.0792136 585 -0.0087460075 -0.06924019 -0.99438119 1.7300553e+09
149.95644 -19.157158 7.0094399 586 -0.0039765467 -0.064789414 -0.99956805 1.7300553e+09
150.54736 -20.059658 7.0983391 587 -0.0073683555 -0.066703431 -1.0016868 1.7300553e+09
151.15681 -21.018091 7.1711965 588 -0.0084165819 -0.051164348 -1.002266 1.7300553e+09
151.72 -21.91161 7.2985444 589 -0.0040193857 -0.05853837 -1.0030074 1.7300553e+09
152.39456 -22.902649 7.2580962 590 -0.0016873189 -0.059360616 -0.99915272 1.7300553e+09
153.16283 -23.807209 7.355526 591 -0.016508022 -0.047433324 -0.83014476 1.7300553e+09
153.97868 -24.75214 7.4814811 592 -0.016847912 -0.059260663 -0.77946192 1.7300553e+09
154.77202 -25.52718 7.4033699 593 -0.015285063 -0.047108643 -0.79063153 1.7300553e+09
155.57712 -26.439484 7.5334597 594 -0.010899443 -0.054746523 -0.87739623 1.7300553e+09
156.25844 -27.23925 7.5537338 595 -0.0065417169 -0.059405584 -0.88207066 1.7300553e+09
156.96947 -28.136213 7.6639419 596 -0.0091026705 -0.056156639 -0.88888603 1.7300553e+09
157.795 -29.099775 7.73492 597 -0.0020801818 -0.033168707 -0.89825046 1.7300553e+09
158.50841 -29.994961 7.7783761 598 -0.011127402 -0.071089238 -0.90726382 1.7300553e+09
159.12585 -30.822142 7.8680296 599 -0.014136946 -0.024919108 -0.89728934 1.7300553e+09
159.79408 -31.596209 7.747704 600 -0.021123961 -0.064473338 -0.80411744 1.7300553e+09
160.58437 -32.311878 7.8825183 601 -0.027482305 -0.062284622 -0.71312493 1.7300553e+09
161.52107 -33.128426 7.9235077 602 -0.025861938 -0.070552103 -0.71111929 1.7300553e+09
162.38245 -33.844723 8.0684347 603 -0.042579506 -0.046849094 -0.71981472 1.7300553e+09
163.10234 -34.570732 8.0777302 604 -0.037256405 -0.058905307 -0.77471554 1.7300553e+09
163.83591 -35.241096 8.2182541 605 -0.036870576 -0.046695396 -0.80320752 1.7300553e+09
164.66516 -36.066422 8.2417431 606 -0.044437326 -0.034426805 -0.84122854 1.7300553e+09
165.35474 -36.924332 8.263237 607 -0.034666698 -0.057076517 -0.88227129 1.7300553e+09
166.10394 -37.831425 8.2369709 608 -0.034417924 -0.057727981 -0.88590419 1.7300553e+09
166.84671 -38.695904 8.2336121 609 -0.031699523 -0.025729075 -0.88486445 1.7300553e+09
167.4991 -39.487694 8.3360643 610 -0.030004 -0.054337122 -0.89541161 1.7300553e+09
168.2533 -40.415184 8.4336691 611 -0.034219012 -0.046860565 -0.8824349 1.7300553e+09
168.98254 -41.236675 8.4387074 612 -0.042697426 -0.038016774 -0.8276276 1.7300553e+09
169.77565 -42.121582 8.5710449 613 -0.052723076 -0.056339696 -0.71583933 1.7300553e+09
170.64767 -42.736996 8.544673 614 -0.05023706 -0.07048285 -0.69420147 1.7300553e+09
171.42332 -43.507603 8.6213484 615 -0.058754317 -0.050222829 -0.61369568 1.7300553e+09
172.27458 -43.938351 8.707942 616 -0.063377373 -0.035271674 -0.36703408 1.7300553e+09
173.33653 -44.188301 8.6713114 617 -0.069181904 -0.029842285 -0.10532633 1.7300553e+09
174.28792 -44.22261 8.6961069 618 -0.068797193 -0.017543284 0.12551124 1.7300553e+09
175.47643 -43.946064 8.7167778 619 -0.068984389 -0.0048258146 0.31858939 1.7300553e+09
176.64015 -43.56974 8.7214584 620 -0.06925261 0.00085533765 0.3533808 1.7300553e+09
177.82314 -43.153355 8.5897369 621 -0.075816222 0.011825526 0.321087 1.7300553e+09
178.7979 -42.810322 8.6566534 622 -0.073781259 0.011711964 0.33131406 1.7300553e+09
180.07169 -42.434902 8.5965214 623 -0.077587932 0.040041499 0.41026726 1.7300553e+09
181.03804 -41.732117 8.6175871 624 -0.038389768 0.040214587 0.60509199 1.7300553e+09
182.01979 -41.067474 8.5590696 625 -0.04477134 0.067816451 0.61203063 1.7300553e+09
182.96841 -40.394413 8.5102005 626 -0.042281047 0.059095241 0.6127789 1.7300553e+09
183.98341 -39.691441 8.3513498 627 -0.036898542 0.071445368 0.62224436 1.7300553e+09
184.81218 -39.037487 8.3035469 628 -0.045934536 0.071056977 0.62089723 1.7300553e+09
185.76997 -38.340782 8.3427849 629 -0.036118843 0.060046252 0.62172335 1.7300553e+09
186.6252 -37.755432 8.1473341 630 -0.045620352 0.046586409 0.62484318 1.7300553e+09
187.55692 -36.992897 8.0961256 631 -0.02946477 0.081939504 0.74315828 1.7300553e+09
188.39493 -36.180664 7.9784479 632 -0.031798653 0.073328242 0.74749577 1.7300553e+09
189.21965 -35.441864 7.9493651 633 -0.037249882 0.070266843 0.74498951 1.7300553e+09
190.02995 -34.74501 7.7911572 634 -0.041326445 0.068551026 0.69473249 1.7300553e+09
190.905 -33.978466 7.6555424 635 -0.033558391 0.047822058 0.6677115 1.7300553e+09
191.83939 -33.25124 7.6341443 636 -0.038160972 0.04205529 0.66542912 1.7300553e+09
192.73521 -32.536091 7.579289 637 -0.043370396 0.076678902 0.66644877 1.7300553e+09
193.62955 -31.842152 7.4692521 638 -0.055387475 0.067304678 0.66668403 1.7300553e+09
194.57188 -31.042511 7.401639 639 -0.042868327 0.067030586 0.66780722 1.7300553e+09
195.50285 -30.31381 7.4333034 640 -0.052311171 0.077528462 0.66540104 1.7300553e+09
196.40584 -29.598696 7.3359394 641 -0.037377071 0.05275932 0.66841549 1.7300553e+09
197.29222 -28.913231 7.1735182 642 -0.031571448 0.048488561 0.66423965 1.7300553e+09
198.16125 -28.230566 7.1159105 643 -0.027295958 0.044473328 0.65826434 1.7300553e+09
199.07173 -27.523815 7.0247192 644 -0.036070045 0.035907473 0.6534881 1.7300553e+09
199.94559 -26.817406 6.9655743 645 -0.034960371 0.038601864 0.65073013 1.7300553e+09
200.81229 -26.165012 6.9016662 646 -0.063678972 0.047545683 0.64225292 1.7300553e+09
201.68231 -25.505695 6.8445849 647 -0.042701583 0.05204891 0.63790214 1.7300553e+09
202.57677 -24.839214 6.7851691 648 -0.028042134 0.051940501 0.67342681 1.7300553e+09
203.44969 -24.127268 6.6792159 649 -0.049698025 0.070816539 0.68339062 1.7300553e+09
204.30138 -23.423203 6.6672988 650 -0.055028688 0.079990745 0.69533575 1.7300553e+09
205.10085 -22.745255 6.6221709 651 -0.034478799 0.065030038 0.71254236 1.7300553e+09
205.84193 -22.074799 6.532671 652 -0.034853026 0.046735194 0.72537136 1.7300553e+09
206.6087 -21.422903 6.4412212 653 -0.030572478 0.077625714 0.72483313 1.7300553e+09
207.43361 -20.700155 6.3446069 654 -0.032028612 0.069948591 0.7222966 1.7300553e+09
208.20903 -20.006355 6.2341442 655 -0.044893172 0.090249181 0.83788228 1.7300553e+09
208.83336 -19.061993 6.1783347 656 -0.051070567 0.039438918 0.68863505 1.7300553e+09
209.2894 -18.763306 6.0808229 657 -0.044801518 0.048330884 0.42195621 1.7300553e+09
210.29951 -18.542852 6.2198367 658 -0.054586589 0.047730617 0.33921927 1.7300553e+09
211.41525 -18.099646 6.0974102 659 -0.0551119 0.038716704 0.27813795 1.7300553e+09
212.55136 -17.960783 5.9232645 660 -0.048900165 0.0043510552 0.01734806 1.7300553e+09
213.71881 -18.008427 5.8782573 661 -0.050185964 -0.009726584 -0.20203197 1.7300553e+09
214.6572 -18.268238 6.2054524 662 -0.045616087 -0.030896058 -0.23526664 1.7300553e+09
215.6165 -18.489939 5.9235687 663 -0.047901001 -0.023278788 -0.35091594 1.7300553e+09
216.77074 -18.988089 6.0579271 664 -0.050880194 -0.024828486 -0.36253572 1.7300553e+09
217.92975 -19.403097 6.107738 665 -0.050239291 0.0096599469 -0.37378016 1.7300553e+09
219.05733 -19.828554 5.9930005 666 -0.067291304 0.02983276 -0.38051283 1.7300553e+09
220.10655 -20.264219 5.941299 667 -0.067016408 0.022350855 -0.41297311 1.7300553e+09
221.034 -20.667959 5.846139 668 -0.06561137 0.045872077 -0.5154767 1.7300553e+09
221.92168 -21.229425 5.8787222 669 -0.058324855 0.0043226532 -0.59652138 1.7300553e+09
222.76842 -21.8517 5.984261 670 -0.052078139 -0.013716453 -0.65635115 1.7300553e+09
223.61075 -22.473053 5.921453 671 -0.060630608 0.027316989 -0.66773206 1.7300553e+09
224.55737 -23.22401 5.8865213 672 -0.055004757 0.0199566 -0.62783182 1.7300553e+09
225.5596 -23.876938 5.8661494 673 -0.054210659 0.019635873 -0.60038084 1.7300553e+09
226.5479 -24.639681 5.8802629 674 -0.04935734 0.050970342 -0.74990964 1.7300553e+09
227.34877 -25.418343 5.852211 675 -0.053308293 0.0017077947 -0.7702226 1.7300553e+09
228.11438 -26.138428 5.84025 676 -0.054431479 0.0045769052 -0.77509493 1.7300553e+09
229.02852 -27.090977 5.7928858 677 -0.044719432 -0.0081929723 -0.78386003 1.7300553e+09
229.7596 -27.800407 5.8904839 678 -0.046002071 -0.0037605297 -0.76910293 1.7300553e+09
230.50629 -28.46731 5.8870263 679 -0.046692789 -0.0051299222 -0.78088176 1.7300553e+09
231.40776 -29.384487 5.7894692 680 -0.045147542 -0.04496992 -0.78747886 1.7300553e+09
232.2018 -30.256172 5.8368411 681 -0.044104077 -0.017734556 -0.89608043 1.7300553e+09
233.02524 -31.214928 5.8498192 682 -0.040064842 -0.016181771 -0.89733177 1.7300553e+09
233.83717 -32.253597 5.8550048 683 -0.040147752 -0.024317693 -0.89431721 1.7300553e+09
234.66089 -33.255733 5.987752 684 -0.029985573 0.0095379902 -0.89767092 1.7300553e+09
235.31068 -34.09729 5.8264608 685 -0.047052514 -0.040748067 -0.89576697 1.7300553e+09
236.13501 -35.032085 6.006629 686 -0.039162487 -0.027209319 -0.90147233 1.7300553e+09
236.88403 -35.972126 6.0771704 687 -0.039476659 -0.034559842 -0.90604639 1.7300553e+09
237.53391 -36.80151 5.9861913 688 -0.03859346 -0.03027433 -0.90272307 1.7300553e+09
238.25969 -37.712345 6.0536618 689 -0.039756116 -0.034609821 -0.89658284 1.7300554e+09
238.95769 -38.54884 6.0339851 690 -0.038463417 -0.040021185 -0.89268935 1.7300554e+09
239.64873 -39.409424 6.0430474 691 -0.044125028 -0.013879878 -0.89275527 1.7300554e+09
240.31749 -40.344097 6.0927939 692 -0.042117454 -0.020919178 -0.93057007 1.7300554e+09
240.99086 -41.308212 6.0722356 693 -0.041223671 -0.027919097 -1.0914603 1.7300554e+09
241.43462 -42.208687 6.1333714 694 -0.042203546 -0.029938759 -1.0939462 1.7300554e+09
241.93288 -43.150124 6.2039475 695 -0.038135305 -0.040547796 -1.0678911 1.7300554e+09
242.509 -44.197121 6.1678972 696 -0.031733569 -0.030120103 -1.0660566 1.7300554e+09
243.09012 -45.218208 6.2226171 697 -0.035340384 -0.036092725 -1.0685405 1.7300554e+09
243.58876 -46.161045 6.3148713 698 -0.025359478 -0.01597042 -1.0671129 1.7300554e+09
244.12689 -47.099777 6.2730889 699 -0.028573107 -0.015030113 -0.94432646 1.7300554e+09
244.91414 -47.96669 6.3205619 700 -0.02799605 -0.026185647 -0.80093539 1.7300554e+09
245.7948 -48.806694 6.3395696 701 -0.032872625 -0.03421684 -0.78062761 1.7300554e+09
246.6264 -49.588161 6.3629289 702 -0.028962635 -0.037239298 -0.7812829 1.7300554e+09
247.33746 -50.391945 6.3598528 703 -0.027008055 -0.034781527 -0.87471277 1.7300554e+09
247.70688 -50.876965 6.4207535 704 -0.024446407 -0.040740296 -1.0911992 1.7300554e+09
248.22075 -51.799377 6.4147649 705 -0.020667162 -0.050824489 -1.0805173 1.7300554e+09
248.84444 -52.641449 6.4901676 706 -0.030826688 -0.018647082 -0.87283301 1.7300554e+09
249.56639 -53.493511 6.4991469 707 -0.034186058 -0.015349951 -0.80139178 1.7300554e+09
250.28508 -54.371948 6.5310545 708 -0.033187073 -0.020778699 -0.98360038 1.7300554e+09
250.86842 -55.25909 6.5332413 709 -0.035729617 -0.030987836 -0.98915541 1.7300554e+09
251.46498 -56.110344 6.5574293 710 -0.044225071 -0.056781244 -0.97913355 1.7300554e+09
252.03798 -56.979305 6.645648 711 -0.03647621 -0.030436024 -0.97973937 1.7300554e+09
252.67783 -57.969734 6.6407714 712 -0.038585756 -0.026344119 -0.96101183 1.7300554e+09
253.38583 -58.876816 6.6764092 713 -0.042659424 -0.02622192 -0.76866621 1.7300554e+09
254.32315 -59.645836 6.6594334 714 -0.053480208 0.019232288 -0.73270249 1.7300554e+09
255.29994 -60.493069 6.7653818 715 -0.040247615 -0.038662978 -0.72796124 1.7300554e+09
256.2413 -61.303093 6.8269491 716 -0.027434746 -0.014238155 -0.72832888 1.7300554e+09
257.06854 -62.038857 6.8536005 717 -0.033570647 -0.033819973 -0.71549916 1.7300554e+09
257.92789 -62.82613 6.8581681 718 -0.029248046 -0.0066543394 -0.78341657 1.7300554e+09
258.65219 -63.666351 6.9543147 719 -0.025101332 -0.040301401 -0.93214405 1.7300554e+09
259.42365 -64.626358 6.9597607 720 -0.034620114 -0.031873606 -0.94564044 1.7300554e+09
260.18112 -65.701736 6.8926854 721 -0.04240863 -0.015703464 -0.94696492 1.7300554e+09
260.93698 -66.763489 6.9864898 722 -0.028249234 -0.033987273 -0.94422412 1.7300554e+09
261.65393 -67.716667 6.9987955 723 -0.034467097 -0.040812895 -0.94296032 1.7300554e+09
262.35318 -68.703568 7.0206718 724 -0.034125067 -0.050167359 -0.96448451 1.7300554e+09
262.93701 -69.525238 7.0073514 725 -0.026109368 -0.037302226 -0.96877104 1.7300554e+09
263.55756 -70.367126 7.0486307 726 -0.02649481 -0.038794193 -0.96642596 1.7300554e+09
264.22644 -71.272873 7.0879393 727 -0.026129588 -0.03856343 -0.95890188 1.7300554e+09
264.83701 -72.141525 7.0964189 728 -0.026651267 -0.040699042 -0.95989788 1.7300554e+09
265.47974 -73.058502 7.1075978 729 -0.025770297 -0.041681629 -0.95885539 1.7300554e+09
266.16187 -73.97419 7.1735415 730 -0.026427168 -0.041424111 -0.95990044 1.7300554e+09
266.76016 -74.787079 7.1950564 731 -0.030635107 -0.040326707 -0.85827792 1.7300554e+09
267.50891 -75.589783 7.2310405 732 -0.030910622 -0.039120343 -0.8122021 1.7300554e+09
268.28082 -76.424797 7.2444296 733 -0.030508244 -0.04697907 -0.8749193 1.7300554e+09
269.03546 -77.405197 7.3053775 734 -0.043229274 -0.01235431 -0.88758647 1.7300554e+09
269.76526 -78.173157 7.3088737 735 -0.043252874 -0.081390269 -0.8727597 1.7300554e+09
270.48877 -78.94194 7.3559585 736 -0.032189511 -0.052584007 -0.8709442 1.7300554e+09
271.11865 -79.736984 7.3234019 737 -0.030696092 -0.053320337 -0.87382108 1.7300554e+09
271.7677 -80.535484 7.4758677 738 -0.051976297 -0.083613768 -0.89654845 1.7300554e+09
272.47891 -81.403763 7.4723525 739 -0.030217383 -0.05899569 -0.92598718 1.7300554e+09
273.22177 -82.487587 7.5431614 740 -0.028363826 -0.061542194 -0.9347465 1.7300554e+09
273.83527 -83.298355 7.6140862 741 -0.029270837 -0.065836214 -0.93036973 1.7300554e+09
274.47644 -84.15992 7.6887064 742 -0.02905268 -0.064949483 -0.9331848 1.7300554e+09
275.10895 -84.969849 7.7917686 743 -0.027784323 -0.06436938 -0.94908577 1.7300554e+09
275.74472 -85.798203 7.8163753 744 -0.028591877 -0.070655569 -0.9511832 1.7300554e+09
276.29276 -86.639915 7.8871851 745 -0.027504763 -0.068265654 -0.95274806 1.7300554e+09
277.01773 -87.619385 7.905324 746 -0.026748084 -0.078981392 -0.95754451 1.7300554e+09
277.64841 -88.500595 8.0496988 747 -0.027180733 -0.068497851 -0.96051222 1.7300554e+09
278.40076 -89.533081 8.0749607 748 -0.025823381 -0.072552979 -0.96553111 1.7300554e+09
279.11682 -90.509056 8.2275 749 -0.027238157 -0.069158174 -0.96488905 1.7300554e+09
279.70093 -91.332153 8.2308998 750 -0.026568826 -0.075036295 -0.96415627 1.7300554e+09
280.32376 -92.238235 8.3369656 751 -0.02652877 -0.075812526 -0.96246737 1.7300554e+09
280.98892 -93.166565 8.4822092 752 -0.027572496 -0.072964787 -0.96248215 1.7300554e+09
281.6568 -94.171394 8.5036869 753 -0.027112067 -0.075643294 -0.96856099 1.7300554e+09
282.36658 -95.126785 8.6054916 754 -0.029407041 -0.073533252 -0.953969 1.7300554e+09
282.9968 -95.970985 8.7288418 755 -0.038861305 -0.070622019 -0.80339468 1.7300554e+09
283.83725 -96.741287 8.7724133 756 -0.038415838 -0.07627631 -0.80890375 1.7300554e+09
284.80811 -97.662018 8.7931128 757 -0.03967661 -0.079640962 -0.80631196 1.7300554e+09
285.57324 -98.469658 8.9017944 758 -0.037132345 -0.078306362 -0.82429618 1.7300554e+09
